22.814674 17.568340 -4.102172 0.000000 55.000000 14.705643 29.000000
24.283311 18.935460 -2.233950 0.000000 81.000000 14.842986 20.000000
20.732323 17.710849 0.721862 0.000000 42.000000 14.576402 6.000000
21.907519 16.860499 -4.991576 0.000000 65.000000 14.678222 1.000000
23.275030 17.664388 -4.456451 0.000000 38.000000 14.678509 29.000000
21.167991 16.384742 -3.829653 0.000000 30.000000 14.301095 0.000000
21.721345 17.657725 -2.514572 0.000000 51.000000 14.872664 26.000000
24.748749 19.417302 -1.631426 0.000000 49.000000 14.926580 19.000000
22.309008 18.489632 1.732948 0.000000 27.000000 14.354498 0.000000
21.865856 17.145117 -3.202867 0.000000 44.000000 14.524630 15.000000
23.973997 18.316011 -3.341470 0.000000 54.000000 14.691652 21.000000
23.285227 18.878321 -1.368645 0.000000 62.000000 15.011244 14.000000
22.748649 17.883950 -1.329355 0.000000 45.000000 14.358207 0.000000
21.373794 17.087676 -1.784847 0.000000 45.000000 14.348975 0.000000
25.222053 18.924875 -2.606045 0.000000 33.000000 14.524605 20.000000
20.375435 16.861069 -0.961642 0.000000 41.000000 14.378890 0.000000
19.824430 16.419524 -0.983002 0.000000 39.000000 14.230145 0.000000
19.679903 16.380144 -0.983382 0.000000 41.000000 14.256814 0.000000
24.339514 18.515469 -3.000546 0.000000 60.000000 14.631733 21.000000
19.332962 16.377354 -0.974489 0.000000 40.000000 14.398841 0.000000
20.441401 17.143139 -2.892599 0.000000 53.000000 15.051723 18.000000
22.384902 18.926036 1.064287 0.000000 71.000000 14.861601 2.000000
21.037289 17.666014 0.483903 0.000000 50.000000 14.464246 6.000000
18.594442 15.984993 -1.064998 0.000000 41.000000 14.388614 0.000000
21.681632 18.536714 1.932404 0.000000 61.000000 14.613866 3.000000
20.119988 17.129284 -0.538110 0.000000 48.000000 14.622065 24.000000
22.242845 16.816563 -5.286135 0.000000 61.000000 14.567329 1.000000
20.715964 18.076733 0.755753 0.000000 48.000000 14.895643 6.000000
23.696925 18.246118 -1.931116 0.000000 45.000000 14.416079 0.000000
22.389154 18.369718 -0.748124 0.000000 41.000000 14.798722 6.000000
21.921093 18.416202 -0.085059 0.000000 66.000000 14.881318 6.000000
21.800903 16.971254 -5.363770 0.000000 51.000000 14.907681 1.000000
23.944928 18.475060 -2.613489 0.000000 76.000000 14.672088 21.000000
23.585625 18.649966 -1.078814 0.000000 46.000000 14.616334 19.000000
22.307484 16.712057 -5.501038 0.000000 57.000000 14.499042 1.000000
20.737839 17.338339 -1.165977 0.000000 57.000000 14.691619 24.000000
23.546795 18.670582 0.185395 0.000000 46.000000 14.353694 0.000000
20.643488 17.432369 -0.231958 0.000000 58.000000 14.594296 9.000000
23.875486 18.322535 -3.234579 0.000000 78.000000 14.713858 21.000000
24.384288 18.957604 -2.589935 0.000000 77.000000 14.903371 20.000000
20.903499 17.624207 0.553041 0.000000 57.000000 14.467918 6.000000
23.452348 18.754399 0.630011 0.000000 47.000000 14.362480 0.000000
20.687765 17.308866 -1.718430 0.000000 58.000000 14.816799 16.000000
25.184568 19.169939 -2.306657 0.000000 56.000000 14.684613 20.000000
19.904012 16.973640 -1.702932 0.000000 75.000000 14.850782 17.000000
22.339377 18.826890 1.095478 0.000000 70.000000 14.786710 2.000000
19.877732 17.049005 0.072636 0.000000 42.000000 14.510600 24.000000
21.633391 18.434121 2.038073 0.000000 59.000000 14.519603 3.000000
21.847697 18.375161 -0.952298 0.000000 66.000000 15.080197 12.000000
22.486271 18.404492 -0.344198 0.000000 72.000000 14.693215 6.000000
20.351315 16.836830 -0.934480 0.000000 42.000000 14.361477 0.000000
19.669867 16.713229 -0.288045 0.000000 49.000000 14.389232 0.000000
23.202746 18.493818 -0.864183 0.000000 66.000000 14.590944 14.000000
19.796808 16.752609 -0.355081 0.000000 42.000000 14.385834 0.000000
19.952267 17.148424 -1.326347 0.000000 62.000000 14.894907 17.000000
22.366678 16.912068 -4.151019 0.000000 30.000000 14.331870 0.000000
20.052612 16.837028 -0.484317 0.000000 41.000000 14.382044 0.000000
23.313363 18.505298 -2.090910 0.000000 75.000000 14.842546 22.000000
24.558201 19.115651 -1.768447 0.000000 71.000000 14.775208 19.000000
23.984369 18.547158 -3.098404 0.000000 55.000000 14.832496 21.000000
23.795395 18.828602 -1.225471 0.000000 78.000000 14.718562 19.000000
23.834222 18.972438 -0.964335 0.000000 56.000000 14.766707 19.000000
22.941194 17.943172 -1.490986 0.000000 47.000000 14.366696 0.000000
20.060521 17.235913 -1.426471 0.000000 67.000000 14.949294 17.000000
24.166460 18.305021 -2.378926 0.000000 54.000000 14.374531 0.000000
20.916831 18.177390 1.333867 0.000000 69.000000 14.763048 4.000000
24.417348 18.425676 -1.739214 0.000000 57.000000 14.223836 0.000000
22.234437 18.576425 0.171082 0.000000 71.000000 14.829017 5.000000
20.359894 16.972643 -2.469813 0.000000 59.000000 14.837547 30.000000
23.447116 18.106547 -3.225977 0.000000 51.000000 14.703719 27.000000
18.807153 16.037516 -2.190050 0.000000 48.000000 14.609123 8.000000
23.989594 18.551313 -2.562013 0.000000 75.000000 14.707874 21.000000
24.400258 18.953729 -0.031099 0.000000 48.000000 14.291906 0.000000
22.019564 17.550345 -2.378297 0.000000 59.000000 14.620660 26.000000
24.360838 18.953341 -0.175379 0.000000 53.000000 14.342124 0.000000
24.326254 18.954588 -2.615624 0.000000 76.000000 14.931283 20.000000
23.106408 18.896853 0.921103 0.000000 47.000000 14.564915 2.000000
23.501462 18.683661 0.363241 0.000000 48.000000 14.342500 0.000000
24.428814 19.278175 -1.354210 0.000000 68.000000 14.874794 19.000000
20.998953 17.530349 -1.520644 0.000000 48.000000 14.832748 24.000000
22.730614 18.707506 0.740859 0.000000 80.000000 14.600266 2.000000
22.646948 18.942031 0.200370 0.000000 49.000000 14.967927 5.000000
23.746659 18.619301 -1.999281 0.000000 47.000000 14.737773 13.000000
21.542695 18.263274 -0.541525 0.000000 70.000000 15.014563 12.000000
21.845790 17.843367 -2.408816 0.000000 43.000000 14.957753 26.000000
22.473800 18.679494 1.160357 0.000000 72.000000 14.585649 2.000000
24.465714 18.668150 -1.708502 0.000000 53.000000 14.408449 0.000000
24.704942 18.465889 -1.920046 0.000000 50.000000 14.180045 0.000000
24.350909 17.997841 -3.641292 0.000000 44.000000 14.324364 0.000000
25.024275 19.102437 -2.052252 0.000000 75.000000 14.633450 19.000000
24.612746 19.379743 -0.359033 0.000000 38.000000 14.652141 11.000000
23.688366 18.182520 -3.289906 0.000000 60.000000 14.683337 27.000000
25.020266 19.685940 -1.367274 0.000000 73.000000 14.984972 11.000000
23.333476 18.519739 -0.627652 0.000000 67.000000 14.502826 19.000000
23.702949 18.501686 -1.527454 0.000000 48.000000 14.542398 13.000000
22.472343 17.768271 -2.801672 0.000000 62.000000 14.719657 29.000000
23.469438 17.771843 -2.613951 0.000000 45.000000 14.257463 0.000000
22.583012 17.404230 -2.728991 0.000000 48.000000 14.337145 0.000000
25.443520 18.966202 -2.107068 0.000000 36.000000 14.349968 0.000000
22.501751 18.474217 -0.769772 0.000000 58.000000 14.847723 6.000000
25.249514 19.110115 -2.334431 0.000000 51.000000 14.611335 20.000000
22.557030 18.196708 -0.712927 0.000000 39.000000 14.568081 6.000000
24.681004 19.305484 -0.802868 0.000000 75.000000 14.662601 11.000000
23.636608 18.207712 -3.940184 0.000000 72.000000 14.880070 28.000000
21.444981 16.613324 -3.632241 0.000000 30.000000 14.337793 0.000000
24.806063 19.285023 -1.813348 0.000000 64.000000 14.829323 19.000000
22.709741 18.881310 -1.343351 0.000000 73.000000 15.251021 14.000000
22.903093 18.415628 -1.154697 0.000000 68.000000 14.717351 14.000000
21.700588 17.518948 -2.517872 0.000000 45.000000 14.760722 26.000000
24.665199 19.339334 -2.125508 0.000000 77.000000 15.009730 19.000000
21.653727 17.795239 -2.215992 0.000000 25.000000 14.951441 24.000000
22.762389 16.686769 -5.634194 0.000000 32.000000 14.316029 0.000000
20.699114 17.053497 -2.758637 0.000000 42.000000 14.832903 30.000000
22.277597 18.746988 0.239755 0.000000 67.000000 14.943957 5.000000
20.520804 17.760370 -0.661428 0.000000 51.000000 15.034179 24.000000
23.605870 18.609463 -0.137744 0.000000 46.000000 14.351173 0.000000
22.732095 18.474990 0.668432 0.000000 44.000000 14.413116 0.000000
23.520103 18.615014 0.005076 0.000000 47.000000 14.358701 0.000000
21.757692 17.933160 -1.811241 0.000000 58.000000 14.933143 24.000000
23.443302 18.611393 0.145289 0.000000 52.000000 14.355024 0.000000
24.045030 18.640907 -1.421951 0.000000 51.000000 14.494972 19.000000
20.143863 16.978922 0.254506 0.000000 30.000000 14.294087 0.000000
20.574180 17.039341 -2.149369 0.000000 47.000000 14.730109 17.000000
22.338002 18.858063 1.399001 0.000000 46.000000 14.743252 2.000000
20.687717 17.816718 0.466505 0.000000 58.000000 14.747932 9.000000
22.206751 18.451258 1.596346 0.000000 46.000000 14.396204 0.000000
24.322605 18.509174 -3.451264 0.000000 59.000000 14.739285 21.000000
21.902964 18.400911 2.096208 0.000000 36.000000 14.362992 0.000000
24.266941 19.276696 -0.512222 0.000000 57.000000 14.744013 11.000000
22.452799 18.493437 1.707528 0.000000 42.000000 14.303061 0.000000
25.933471 19.650341 -1.601552 0.000000 76.000000 14.623096 10.000000
22.785873 18.069375 -2.406343 0.000000 45.000000 14.757896 23.000000
20.824358 18.120956 0.605648 0.000000 87.000000 14.923841 6.000000
25.353013 19.509649 -1.333465 0.000000 57.000000 14.682138 11.000000
21.101783 17.982600 -1.384749 0.000000 71.000000 15.153274 24.000000
24.859927 19.007112 -2.450715 0.000000 77.000000 14.713067 20.000000
23.077735 18.624185 -1.519171 0.000000 47.000000 14.911798 14.000000
19.735888 16.719020 -0.370502 0.000000 32.000000 14.385789 0.000000
19.976225 17.849901 0.325564 0.000000 76.000000 15.110660 9.000000
21.385220 17.920998 -1.252257 0.000000 68.000000 14.948479 24.000000
21.656821 17.534076 -2.470459 0.000000 62.000000 14.781312 26.000000
21.434448 18.164483 0.030132 0.000000 65.000000 14.839469 6.000000
24.014036 18.734276 -3.020292 0.000000 76.000000 14.965411 21.000000
18.399851 15.747109 -1.318309 0.000000 40.000000 14.322101 0.000000
22.863355 18.785904 -0.135983 0.000000 76.000000 14.818880 5.000000
22.542563 17.522894 -4.033615 0.000000 44.000000 14.764698 29.000000
18.743423 15.954469 -1.439352 0.000000 34.000000 14.386932 0.000000
24.583850 19.329042 -1.987860 0.000000 70.000000 15.002738 19.000000
20.156699 18.043848 0.453712 0.000000 55.000000 15.174088 9.000000
21.444026 16.866958 -4.704746 0.000000 50.000000 14.812267 1.000000
21.659236 18.319714 2.774261 0.000000 32.000000 14.235530 0.000000
20.453102 16.471821 -2.443356 0.000000 64.000000 14.353537 0.000000
19.600741 16.748309 -2.306406 0.000000 67.000000 14.923457 8.000000
22.555228 17.399292 -2.716085 0.000000 48.000000 14.341527 0.000000
24.446807 19.074493 -0.996815 0.000000 66.000000 14.604902 19.000000
23.699856 17.966602 -2.681029 0.000000 49.000000 14.346382 0.000000
24.225152 18.304067 -2.601015 0.000000 50.000000 14.401093 0.000000
19.019336 16.556832 -1.955347 0.000000 69.000000 14.918944 8.000000
20.010733 16.976409 0.377280 0.000000 30.000000 14.319274 0.000000
24.404721 18.444613 -1.620442 0.000000 62.000000 14.217836 0.000000
22.571317 18.524868 -1.805398 0.000000 48.000000 15.106048 23.000000
24.744621 18.716998 -3.119053 0.000000 66.000000 14.664870 21.000000
20.661793 17.626746 -1.093220 0.000000 40.000000 14.959117 24.000000
23.429462 18.718618 0.895543 0.000000 45.000000 14.278425 0.000000
22.529220 16.588592 -5.510577 0.000000 29.000000 14.299533 0.000000
24.160342 18.485460 -3.402492 0.000000 76.000000 14.775609 21.000000
23.479262 18.723746 0.462714 0.000000 46.000000 14.363592 0.000000
23.537666 18.693341 0.313242 0.000000 51.000000 14.347430 0.000000
23.343618 18.750650 -1.698156 0.000000 72.000000 14.952249 13.000000
21.596380 17.762719 0.945753 0.000000 25.000000 14.204188 0.000000
20.437607 17.814143 1.314204 0.000000 58.000000 14.652123 6.000000
21.366889 17.646782 -1.966872 0.000000 43.000000 14.884109 24.000000
23.399833 18.665182 0.417627 0.000000 34.000000 14.356474 0.000000
23.507344 18.908449 -0.498395 0.000000 43.000000 14.739279 19.000000
23.064562 18.862119 -1.195059 0.000000 68.000000 15.049484 14.000000
23.230186 18.328136 -0.352754 0.000000 46.000000 14.314128 0.000000
21.193614 17.865933 -1.094599 0.000000 80.000000 14.944167 24.000000
20.867183 17.404200 -0.574018 0.000000 77.000000 14.555525 24.000000
23.578139 18.111158 -4.462693 0.000000 52.000000 14.943035 28.000000
24.425542 18.430363 -1.696970 0.000000 59.000000 14.214550 0.000000
24.474075 18.443792 -1.849774 0.000000 67.000000 14.241713 0.000000
24.437077 18.531736 -1.983011 0.000000 71.000000 14.365639 0.000000
21.340454 17.753620 -0.111509 0.000000 55.000000 14.552791 12.000000
22.846834 18.687021 -0.321646 0.000000 75.000000 14.782927 5.000000
24.133788 18.581364 -2.828985 0.000000 42.000000 14.736006 21.000000
25.746646 19.335915 -1.848936 0.000000 63.000000 14.484903 10.000000
24.436185 18.474206 -1.579662 0.000000 58.000000 14.220867 0.000000
23.519136 18.162371 -1.862034 0.000000 54.000000 14.401637 0.000000
21.303770 16.253582 -4.200253 0.000000 26.000000 14.216011 0.000000
22.053783 17.643010 -1.531498 0.000000 62.000000 14.488326 24.000000
23.327425 17.614146 -3.348915 0.000000 57.000000 14.352123 0.000000
21.618841 17.001063 -5.308328 0.000000 51.000000 14.997656 1.000000
22.798373 17.065736 -3.875684 0.000000 36.000000 14.219325 0.000000
20.458888 16.571274 -3.767369 0.000000 80.000000 14.749297 1.000000
22.951915 18.905134 -1.307482 0.000000 71.000000 15.161145 14.000000
21.617469 17.840469 -2.845811 0.000000 50.000000 15.154360 26.000000
19.582931 16.611594 -2.352340 0.000000 62.000000 14.822095 8.000000
23.197227 18.601087 -2.337715 0.000000 60.000000 15.033459 22.000000
23.157891 18.479478 -1.592474 0.000000 71.000000 14.768488 14.000000
21.741316 18.586322 1.801069 0.000000 54.000000 14.662945 3.000000
22.016525 16.652813 -4.491343 0.000000 39.000000 14.332811 0.000000
21.602680 17.235977 -3.544894 0.000000 57.000000 14.795719 15.000000
21.911991 18.460939 -0.272657 0.000000 44.000000 14.968412 6.000000
19.609066 16.875623 -2.095345 0.000000 48.000000 14.981791 8.000000
22.500192 18.565717 -2.035333 0.000000 62.000000 15.225887 23.000000
24.406658 18.389521 -2.652612 0.000000 50.000000 14.411351 0.000000
22.728993 17.775567 -3.184089 0.000000 71.000000 14.707494 29.000000
20.520311 17.619230 -0.608448 0.000000 85.000000 14.898384 24.000000
20.527486 17.844235 0.993365 0.000000 35.000000 14.715895 6.000000
24.878524 19.356325 -0.992832 0.000000 59.000000 14.668309 11.000000
19.784932 17.079794 -0.886428 0.000000 46.000000 14.802135 7.000000
24.623770 18.751040 -3.157292 0.000000 66.000000 14.754709 21.000000
23.470521 17.976037 -4.462717 0.000000 67.000000 14.870218 28.000000
22.977450 18.094140 -0.408567 0.000000 57.000000 14.229169 0.000000
22.865100 18.085963 -0.280050 0.000000 41.000000 14.239270 0.000000
24.212822 19.137237 -1.281316 0.000000 41.000000 14.825528 19.000000
22.573225 18.130116 -0.020370 0.000000 46.000000 14.340194 0.000000
22.259982 18.645134 0.159720 0.000000 73.000000 14.881044 5.000000
22.439315 18.138733 0.104357 0.000000 51.000000 14.374994 0.000000
20.459953 17.788015 -0.898617 0.000000 70.000000 15.139825 24.000000
22.521030 18.360853 -1.625288 0.000000 52.000000 14.941386 23.000000
20.668106 18.003043 0.632893 0.000000 52.000000 14.880224 6.000000
22.877857 17.979424 -2.521296 0.000000 60.000000 14.667310 25.000000
22.224115 17.930124 -0.871569 0.000000 51.000000 14.512629 12.000000
20.106148 16.740624 -1.561034 0.000000 51.000000 14.528065 17.000000
20.544244 17.937687 0.818055 0.000000 68.000000 14.831822 6.000000
22.095505 17.834195 -1.876231 0.000000 50.000000 14.719077 24.000000
21.264978 16.785180 -4.613126 0.000000 66.000000 14.794784 1.000000
20.510644 17.303398 -2.117097 0.000000 70.000000 14.980520 17.000000
22.929466 17.831039 -3.312281 0.000000 59.000000 14.701494 29.000000
19.738365 17.090125 -0.781935 0.000000 45.000000 14.806295 7.000000
24.464187 19.300826 -0.755382 0.000000 67.000000 14.738955 11.000000
20.837374 18.040176 -0.255439 0.000000 72.000000 15.049984 9.000000
20.805647 17.508310 -2.833964 0.000000 69.000000 15.203745 30.000000
23.428207 18.652822 -1.151083 0.000000 61.000000 14.702315 14.000000
22.029630 17.925267 0.622729 0.000000 42.000000 14.239373 0.000000
21.931299 17.881294 0.720386 0.000000 42.000000 14.219469 0.000000
21.783818 17.885796 0.821343 0.000000 42.000000 14.261986 0.000000
21.169413 17.066874 -2.832275 0.000000 52.000000 14.663248 30.000000
24.182744 18.797342 -2.293394 0.000000 71.000000 14.778530 20.000000
19.339236 16.559297 -0.392061 0.000000 40.000000 14.418593 7.000000
24.341719 19.616746 -0.681370 0.000000 44.000000 15.049853 11.000000
23.540956 18.453628 -1.889064 0.000000 40.000000 14.653737 13.000000
23.222028 18.657593 -2.181725 0.000000 71.000000 15.035790 22.000000
23.385156 18.671501 -0.585338 0.000000 63.000000 14.603903 19.000000
25.526980 19.412898 -1.011603 0.000000 52.000000 14.448316 11.000000
24.404537 18.873651 -2.155530 0.000000 66.000000 14.719239 20.000000
21.384895 16.377874 -4.087730 0.000000 49.000000 14.264103 0.000000
25.064864 19.163586 -2.490162 0.000000 48.000000 14.772743 20.000000
21.430732 18.253190 2.500728 0.000000 46.000000 14.338102 0.000000
21.728385 16.653049 -3.987025 0.000000 41.000000 14.336224 0.000000
24.866877 19.061075 -1.881249 0.000000 41.000000 14.623546 19.000000
21.186882 18.375872 0.349192 0.000000 82.000000 15.054120 6.000000
23.727743 18.851568 -0.662135 0.000000 62.000000 14.634861 19.000000
20.321236 18.021691 0.283421 0.000000 42.000000 15.125204 9.000000
22.413806 16.981193 -3.828131 0.000000 47.000000 14.296596 0.000000
20.113564 17.911404 0.489878 0.000000 59.000000 15.067870 9.000000
19.172322 16.712418 -1.917178 0.000000 49.000000 14.981548 8.000000
25.363230 19.456634 -1.465975 0.000000 66.000000 14.662553 10.000000
21.337303 16.891377 -3.548992 0.000000 42.000000 14.607124 15.000000
24.381811 19.252618 -0.345970 0.000000 33.000000 14.635341 11.000000
20.329544 16.815428 -2.653137 0.000000 60.000000 14.755824 18.000000
24.266376 18.414318 -1.583293 0.000000 50.000000 14.241027 0.000000
24.373414 18.962003 -0.193269 0.000000 22.000000 14.348598 0.000000
20.492643 16.216801 -3.841317 0.000000 56.000000 14.442110 1.000000
25.652826 19.114893 -1.899657 0.000000 49.000000 14.342973 0.000000
24.738177 18.940958 -1.031886 0.000000 50.000000 14.373163 0.000000
23.107810 18.577502 -1.013649 0.000000 83.000000 14.739429 14.000000
25.259071 19.110577 -0.667556 0.000000 44.000000 14.215986 0.000000
21.629948 18.268241 2.714974 0.000000 43.000000 14.216774 0.000000
22.078343 18.385098 -0.631077 0.000000 50.000000 14.915977 6.000000
22.442940 18.001483 -3.447464 0.000000 66.000000 15.087993 29.000000
22.421006 17.975931 -3.411582 0.000000 61.000000 15.066458 29.000000
22.123885 18.288719 1.259140 0.000000 51.000000 14.368166 0.000000
22.855170 18.751307 0.678665 0.000000 35.000000 14.600608 2.000000
22.073758 18.708430 0.512294 0.000000 70.000000 14.932266 5.000000
24.424984 18.503059 -3.513103 0.000000 75.000000 14.705215 21.000000
20.473145 17.361514 -0.956727 0.000000 64.000000 14.774549 24.000000
21.627421 17.863489 1.044402 0.000000 38.000000 14.256107 0.000000
22.492955 17.911988 -2.929944 0.000000 66.000000 14.866904 29.000000
21.617829 18.085462 1.344996 0.000000 51.000000 14.383835 0.000000
23.939363 18.771091 -1.030879 0.000000 54.000000 14.561671 19.000000
23.587628 18.924729 -0.599321 0.000000 42.000000 14.743334 19.000000
23.935931 18.670955 -3.279808 0.000000 74.000000 15.003960 21.000000
23.389246 18.345055 -1.967111 0.000000 71.000000 14.641121 22.000000
21.083864 17.917236 0.318625 0.000000 66.000000 14.703332 6.000000
24.386726 18.544910 -2.541912 0.000000 81.000000 14.529784 20.000000
20.844937 16.703987 -4.397377 0.000000 70.000000 14.850445 1.000000
21.911292 18.233494 -0.807854 0.000000 58.000000 14.895372 12.000000
22.574061 16.997464 -4.212552 0.000000 38.000000 14.333481 0.000000
23.567515 18.279274 -3.612594 0.000000 54.000000 14.894919 27.000000
20.361358 17.043831 -2.085515 0.000000 66.000000 14.808937 17.000000
24.206050 18.558560 -2.384529 0.000000 70.000000 14.581072 20.000000
23.012750 18.103219 -0.633279 0.000000 45.000000 14.275012 0.000000
22.414337 18.733136 1.439149 0.000000 57.000000 14.592210 2.000000
20.933571 18.161888 0.545360 0.000000 65.000000 14.927706 6.000000
25.276792 19.105477 -0.694193 0.000000 49.000000 14.210296 0.000000
23.773631 18.231255 -3.488092 0.000000 63.000000 14.736554 27.000000
22.068106 18.716363 0.310692 0.000000 72.000000 14.988975 5.000000
22.798803 18.785055 0.322353 0.000000 61.000000 14.737696 5.000000
22.615522 18.168591 -2.477321 0.000000 72.000000 14.933391 25.000000
24.229397 18.560333 -1.485870 0.000000 48.000000 14.361576 0.000000
22.954857 18.960051 -1.421879 0.000000 73.000000 15.234860 14.000000
23.307987 17.799975 -2.635732 0.000000 51.000000 14.355411 0.000000
22.707023 17.045567 -3.885865 0.000000 41.000000 14.242651 0.000000
23.313660 19.091384 -0.812366 0.000000 57.000000 15.055023 19.000000
22.512263 16.992320 -4.119067 0.000000 51.000000 14.333115 0.000000
22.461582 16.921389 -4.256167 0.000000 51.000000 14.324649 0.000000
22.399218 16.862716 -4.390505 0.000000 45.000000 14.331201 0.000000
23.717121 18.206416 -2.828042 0.000000 56.000000 14.583570 21.000000
22.282822 16.744085 -4.663522 0.000000 47.000000 14.340680 0.000000
18.821822 16.109743 -2.133340 0.000000 51.000000 14.652827 8.000000
23.489207 18.654694 0.209328 0.000000 43.000000 14.358489 0.000000
22.232961 16.445009 -5.144290 0.000000 44.000000 14.212913 0.000000
22.799089 18.209658 -1.486739 0.000000 55.000000 14.659009 23.000000
24.451061 18.823434 -3.422757 0.000000 61.000000 14.953425 21.000000
20.108775 17.497173 -0.336756 0.000000 68.000000 14.901533 24.000000
21.430579 17.642862 0.043616 0.000000 41.000000 14.381307 0.000000
23.038559 18.123512 -2.408975 0.000000 44.000000 14.699163 23.000000
21.151261 17.586188 0.195635 0.000000 41.000000 14.413964 0.000000
21.322929 18.338463 0.151976 0.000000 53.000000 15.010247 6.000000
25.062237 19.108073 -1.998988 0.000000 62.000000 14.609830 19.000000
21.720077 18.480250 1.622861 0.000000 56.000000 14.620941 3.000000
18.883350 16.371649 -2.040226 0.000000 38.000000 14.834226 8.000000
21.475551 18.007204 -1.751371 0.000000 65.000000 15.103076 24.000000
20.459129 16.617227 -3.323416 0.000000 45.000000 14.685093 18.000000
21.173776 18.219491 1.463818 0.000000 62.000000 14.660823 4.000000
20.982127 17.529287 0.373486 0.000000 32.000000 14.393806 0.000000
21.825528 16.605895 -4.392569 0.000000 51.000000 14.349211 0.000000
25.333614 19.478504 -1.290824 0.000000 51.000000 14.653048 11.000000
22.376036 17.025999 -5.784019 0.000000 75.000000 14.811408 1.000000
22.805369 16.853372 -5.219845 0.000000 43.000000 14.346345 0.000000
20.204006 17.960010 0.184998 0.000000 72.000000 15.143860 9.000000
22.541676 18.261172 -0.484191 0.000000 26.000000 14.577246 6.000000
20.662947 17.300183 -1.146686 0.000000 40.000000 14.685321 24.000000
23.536330 17.844702 -3.143066 0.000000 49.000000 14.417329 27.000000
22.236967 18.327708 -0.305166 0.000000 47.000000 14.722140 6.000000
22.821589 17.775799 -3.226535 0.000000 48.000000 14.678557 29.000000
25.229128 19.216492 -2.321036 0.000000 45.000000 14.709921 20.000000
20.915779 17.583833 -1.539174 0.000000 64.000000 14.919058 24.000000
22.466148 16.997874 -3.886424 0.000000 39.000000 14.302786 0.000000
20.965847 17.460057 -0.269837 0.000000 22.000000 14.491260 9.000000
22.641755 18.069644 -3.741672 0.000000 68.000000 15.132813 29.000000
22.721268 17.073358 -3.722600 0.000000 38.000000 14.222595 0.000000
24.018867 18.344380 -3.899969 0.000000 52.000000 14.828779 28.000000
22.566683 17.399187 -3.724536 0.000000 72.000000 14.573582 29.000000
23.162914 18.713423 1.276739 0.000000 33.000000 14.296895 0.000000
21.220487 18.072515 0.153609 0.000000 62.000000 14.820328 6.000000
24.994061 19.039551 -2.834936 0.000000 44.000000 14.775094 20.000000
24.298275 18.920903 -2.367914 0.000000 77.000000 14.855403 20.000000
23.806418 18.456364 -2.303476 0.000000 41.000000 14.641380 22.000000
19.448943 16.871541 -0.554336 0.000000 58.000000 14.683722 7.000000
20.320677 16.811803 -1.201788 0.000000 37.000000 14.415329 17.000000
22.678534 17.986826 -0.918834 0.000000 52.000000 14.381412 0.000000
24.713605 19.471630 -1.032504 0.000000 52.000000 14.848238 11.000000
21.631146 18.079794 1.268766 0.000000 42.000000 14.391161 0.000000
19.821648 17.765120 0.464336 0.000000 49.000000 15.069129 9.000000
21.148150 16.518824 -3.547298 0.000000 31.000000 14.360498 0.000000
20.089382 17.804208 0.323664 0.000000 61.000000 15.023306 9.000000
21.412179 18.303966 -0.067652 0.000000 61.000000 14.993958 6.000000
25.363386 19.381012 -1.685411 0.000000 63.000000 14.647855 10.000000
21.573363 18.118340 -0.445229 0.000000 36.000000 14.852103 12.000000
20.472553 17.960434 0.130842 0.000000 64.000000 15.043514 9.000000
22.577304 17.786586 -3.033595 0.000000 35.000000 14.745853 29.000000
22.993381 18.733515 0.195428 0.000000 54.000000 14.640209 5.000000
22.711437 18.617617 0.528716 0.000000 42.000000 14.579532 5.000000
20.410818 16.689213 -4.157352 0.000000 71.000000 14.964493 1.000000
20.387846 17.570419 -0.682437 0.000000 76.000000 14.929000 24.000000
19.425017 15.909484 -2.757508 0.000000 25.000000 14.369391 0.000000
22.741321 18.322988 -2.353036 0.000000 34.000000 14.986202 23.000000
20.705333 16.883505 -1.342318 0.000000 48.000000 14.348629 0.000000
19.450539 16.904123 -2.022990 0.000000 58.000000 15.056704 8.000000
20.209948 17.953217 0.583395 0.000000 78.000000 15.041780 9.000000
23.782066 18.604355 -1.072393 0.000000 33.000000 14.491913 19.000000
23.974474 19.093369 -1.299509 0.000000 74.000000 14.892089 19.000000
22.508845 18.271885 -2.645823 0.000000 43.000000 15.108477 25.000000
19.145244 16.305422 -0.476134 0.000000 41.000000 14.298057 0.000000
24.423184 19.446778 -0.335016 0.000000 49.000000 14.785256 11.000000
22.466717 18.139792 -2.417354 0.000000 46.000000 14.956949 23.000000
23.804744 18.969230 -0.928193 0.000000 66.000000 14.767858 19.000000
21.816500 16.910775 -3.490168 0.000000 40.000000 14.407852 0.000000
20.816222 18.050793 1.198132 0.000000 76.000000 14.726624 6.000000
23.898434 18.577915 -3.962283 0.000000 41.000000 15.098735 28.000000
18.774872 16.014133 -1.302755 0.000000 51.000000 14.393776 0.000000
18.655190 15.953249 -1.314343 0.000000 42.000000 14.393759 0.000000
18.993612 16.830643 -1.671224 0.000000 53.000000 15.102736 8.000000
21.467492 18.592569 1.888792 0.000000 51.000000 14.763471 3.000000
20.175301 17.025547 -3.037036 0.000000 63.000000 15.095135 18.000000
23.320532 18.567378 0.197796 0.000000 31.000000 14.356016 0.000000
23.148140 16.997635 -5.162181 0.000000 45.000000 14.314284 0.000000
20.493225 18.041039 0.069144 0.000000 54.000000 15.119843 9.000000
21.096496 17.576485 -1.106192 0.000000 66.000000 14.734535 24.000000
23.362239 18.575655 -1.280657 0.000000 76.000000 14.693080 14.000000
21.914711 18.530356 1.856105 0.000000 53.000000 14.527771 3.000000
20.569406 17.731084 0.626531 0.000000 49.000000 14.685340 9.000000
24.475825 18.964533 -1.632726 0.000000 66.000000 14.645824 19.000000
24.931845 19.682540 -0.851792 0.000000 77.000000 14.898209 11.000000
22.376726 18.027310 -3.392997 0.000000 74.000000 15.125773 29.000000
21.992729 16.520975 -5.028406 0.000000 28.000000 14.353662 0.000000
24.114244 18.801600 -0.253672 0.000000 47.000000 14.331859 0.000000
24.088383 18.857495 -0.101891 0.000000 45.000000 14.356045 0.000000
24.471510 19.064140 -1.663135 0.000000 52.000000 14.741988 19.000000
24.054780 18.945470 0.194132 0.000000 47.000000 14.377688 0.000000
24.031756 18.991809 0.341265 0.000000 45.000000 14.393402 0.000000
24.945643 19.225687 -2.524000 0.000000 70.000000 14.885421 20.000000
21.280744 18.180391 -0.000176 0.000000 63.000000 14.925447 6.000000
19.919353 16.937513 0.105092 0.000000 48.000000 14.387792 0.000000
23.239135 17.909190 -4.350453 0.000000 71.000000 14.883063 29.000000
22.617231 17.820023 -3.069465 0.000000 64.000000 14.766687 29.000000
25.011022 19.388710 -0.578967 0.000000 48.000000 14.543430 11.000000
19.949011 16.901225 0.172643 0.000000 33.000000 14.327622 0.000000
20.077901 16.919458 0.087254 0.000000 30.000000 14.309201 0.000000
22.097757 18.160261 -0.664836 0.000000 59.000000 14.718886 6.000000
24.853879 19.291396 -2.627856 0.000000 39.000000 15.006113 20.000000
19.499086 16.348956 -1.051630 0.000000 35.000000 14.321933 0.000000
23.823891 18.023308 -3.165489 0.000000 53.000000 14.457474 27.000000
22.150443 17.510804 -1.455712 0.000000 54.000000 14.313952 0.000000
22.256718 18.606863 0.762518 0.000000 43.000000 14.707262 5.000000
23.253395 18.787830 -1.136102 0.000000 74.000000 14.890828 14.000000
19.205196 16.763535 -1.910501 0.000000 58.000000 15.010840 8.000000
20.840203 18.216591 0.654775 0.000000 69.000000 14.989322 6.000000
22.779390 17.877095 -1.418490 0.000000 47.000000 14.360167 0.000000
21.052393 17.736622 -0.716119 0.000000 43.000000 14.801682 12.000000
24.328812 18.890883 -2.388931 0.000000 73.000000 14.821162 20.000000
24.545799 18.731543 -3.296948 0.000000 66.000000 14.803398 21.000000
25.576159 19.777194 -1.812833 0.000000 65.000000 14.934734 10.000000
23.408761 18.117269 -3.081451 0.000000 70.000000 14.695344 27.000000
25.532210 18.983936 -2.248646 0.000000 64.000000 14.361298 0.000000
23.310945 18.926302 -0.772170 0.000000 55.000000 14.902210 19.000000
24.048327 18.960816 0.214988 0.000000 48.000000 14.388947 0.000000
24.044215 18.907447 0.071017 0.000000 46.000000 14.377798 0.000000
20.372105 17.534566 -0.144257 0.000000 25.000000 14.777790 9.000000
24.361691 19.370337 -1.366931 0.000000 66.000000 14.986817 19.000000
24.055838 18.792754 -0.221794 0.000000 48.000000 14.341296 0.000000
22.181356 17.846174 -3.129159 0.000000 57.000000 14.987736 29.000000
24.629831 19.479703 -0.747340 0.000000 70.000000 14.823680 11.000000
19.505952 16.778011 -0.347337 0.000000 53.000000 14.529119 7.000000
24.153595 18.366696 -1.443457 0.000000 50.000000 14.214120 0.000000
24.926130 18.658298 -2.324116 0.000000 53.000000 14.349999 0.000000
24.100877 18.266966 -2.210358 0.000000 47.000000 14.329308 0.000000
21.926623 17.751957 -2.757774 0.000000 48.000000 14.925591 26.000000
20.776239 16.696854 -3.292366 0.000000 55.000000 14.613544 18.000000
24.680742 18.511381 -2.013632 0.000000 50.000000 14.252084 0.000000
19.811627 17.539077 0.492110 0.000000 56.000000 14.868958 9.000000
21.963167 18.008297 -1.940761 0.000000 76.000000 14.942555 24.000000
23.635166 17.862499 -2.606409 0.000000 49.000000 14.265042 0.000000
23.538497 17.746176 -2.614697 0.000000 45.000000 14.205997 0.000000
22.543056 17.474437 -2.575079 0.000000 48.000000 14.379314 0.000000
24.590288 18.883611 -2.813978 0.000000 72.000000 14.804226 20.000000
22.814787 17.651823 -2.889206 0.000000 58.000000 14.493629 25.000000
24.940193 19.582052 -1.230985 0.000000 51.000000 14.895826 11.000000
20.887434 16.964612 -1.778391 0.000000 57.000000 14.445183 16.000000
22.631994 18.415447 -1.940659 0.000000 46.000000 15.016415 23.000000
21.713058 18.106815 -0.195469 0.000000 63.000000 14.724308 6.000000
24.275712 18.056022 -3.641981 0.000000 43.000000 14.407223 0.000000
22.244256 18.345610 1.231147 0.000000 34.000000 14.373699 0.000000
24.720000 18.787826 -3.026965 0.000000 70.000000 14.715633 20.000000
20.031212 17.470558 -0.344894 0.000000 53.000000 14.912912 24.000000
24.087300 18.329748 -1.408454 0.000000 42.000000 14.201555 0.000000
21.736211 17.691298 -2.673708 0.000000 69.000000 14.933170 26.000000
23.935746 18.449499 -1.226895 0.000000 43.000000 14.327740 0.000000
22.434165 17.752103 -2.612654 0.000000 54.000000 14.677212 25.000000
23.370224 18.784577 -1.154753 0.000000 53.000000 14.843010 14.000000
22.593513 18.938420 1.043923 0.000000 70.000000 14.789104 2.000000
20.908370 17.884659 -0.549881 0.000000 64.000000 14.953048 12.000000
20.806344 18.221476 0.678808 0.000000 79.000000 15.002254 6.000000
22.952445 18.037317 -0.381330 0.000000 25.000000 14.183588 0.000000
24.055803 18.801399 -1.355400 0.000000 76.000000 14.615276 19.000000
22.431976 18.141872 -1.751368 0.000000 71.000000 14.816939 23.000000
24.235776 18.585032 -2.862364 0.000000 42.000000 14.703979 21.000000
23.425660 18.465869 -2.214111 0.000000 57.000000 14.789544 22.000000
23.850602 18.908708 -0.805449 0.000000 67.000000 14.666660 19.000000
18.467154 16.092039 -2.040878 0.000000 76.000000 14.765424 8.000000
22.350731 18.386427 -0.766821 0.000000 51.000000 14.833973 6.000000
22.537654 18.110859 -2.174859 0.000000 64.000000 14.844668 23.000000
24.019556 18.894811 0.080937 0.000000 52.000000 14.374822 0.000000
21.489335 18.015868 -1.077363 0.000000 33.000000 14.946446 12.000000
23.851114 18.893356 0.513471 0.000000 47.000000 14.343058 0.000000
23.085376 18.675940 1.287696 0.000000 43.000000 14.294263 0.000000
23.819977 18.867065 0.654061 0.000000 50.000000 14.300158 0.000000
23.011796 18.691541 1.427639 0.000000 45.000000 14.306116 0.000000
23.636538 18.920329 -1.025107 0.000000 42.000000 14.818881 19.000000
23.829061 18.734355 -1.323861 0.000000 58.000000 14.644958 19.000000
21.931415 18.204624 -2.091756 0.000000 51.000000 15.163316 24.000000
21.004962 18.143618 1.774398 0.000000 64.000000 14.592730 4.000000
24.123320 18.597726 -1.886176 0.000000 48.000000 14.533193 13.000000
20.700136 17.011040 -3.038401 0.000000 59.000000 14.861049 18.000000
21.849168 18.084917 -2.087420 0.000000 66.000000 15.092250 24.000000
19.608554 16.332805 -1.488982 0.000000 40.000000 14.364330 0.000000
22.357280 18.554250 1.079974 0.000000 51.000000 14.544122 2.000000
19.960403 16.499618 -1.664459 0.000000 53.000000 14.402962 0.000000
19.834367 17.093335 -1.130249 0.000000 53.000000 14.850404 7.000000
19.806265 17.146388 -1.011267 0.000000 37.000000 14.880757 7.000000
20.989309 17.889019 -1.203107 0.000000 71.000000 15.076181 24.000000
22.363653 18.791203 0.304330 0.000000 52.000000 14.931135 5.000000
21.091482 17.724992 -1.440772 0.000000 50.000000 14.945281 24.000000
23.530618 18.421515 -1.800335 0.000000 68.000000 14.609142 13.000000
24.985087 18.957688 -2.799721 0.000000 67.000000 14.698946 20.000000
21.852565 17.216754 -2.343890 0.000000 56.000000 14.391096 0.000000
22.928246 17.737298 -4.279750 0.000000 65.000000 14.847303 29.000000
21.706212 17.241890 -3.333694 0.000000 34.000000 14.707528 15.000000
24.322309 18.481871 -1.892635 0.000000 52.000000 14.349230 0.000000
23.703580 18.361445 -2.059365 0.000000 48.000000 14.544364 22.000000
24.734154 18.529476 -1.899564 0.000000 40.000000 14.218555 0.000000
24.480466 18.857048 -2.180859 0.000000 70.000000 14.678583 20.000000
21.835636 17.522066 -2.239311 0.000000 50.000000 14.640941 24.000000
23.609832 18.609139 -1.477253 0.000000 68.000000 14.664000 13.000000
19.157216 16.568794 -1.549848 0.000000 38.000000 14.775878 8.000000
22.551966 18.856262 0.902264 0.000000 49.000000 14.768024 2.000000
20.899460 17.698446 -0.983207 0.000000 52.000000 14.895632 24.000000
24.187745 18.947713 -0.025068 0.000000 54.000000 14.374995 0.000000
23.361208 18.702741 0.645105 0.000000 45.000000 14.352212 0.000000
24.251685 18.892785 -0.180481 0.000000 47.000000 14.336422 0.000000
23.388441 18.677628 0.498047 0.000000 45.000000 14.353283 0.000000
21.724802 18.276281 -0.283274 0.000000 76.000000 14.888332 6.000000
22.942943 18.890317 -1.245737 0.000000 62.000000 15.137454 14.000000
21.354807 17.791363 0.977246 0.000000 31.000000 14.323911 0.000000
22.528521 18.359856 -1.896547 0.000000 79.000000 15.001095 23.000000
24.515237 19.182635 -1.579182 0.000000 73.000000 14.807518 19.000000
20.178490 16.840820 -2.920673 0.000000 78.000000 14.904734 18.000000
24.337853 18.832990 -0.785615 0.000000 78.000000 14.389884 0.000000
23.511673 18.592085 -0.096878 0.000000 48.000000 14.366149 0.000000
21.513916 17.171778 -5.206600 0.000000 58.000000 15.167518 1.000000
23.574129 18.562774 -0.395147 0.000000 52.000000 14.384200 0.000000
24.150883 19.032360 -1.409190 0.000000 44.000000 14.789935 19.000000
22.568004 17.691226 -3.971320 0.000000 73.000000 14.886669 29.000000
24.023366 18.334011 -1.502327 0.000000 50.000000 14.254355 0.000000
19.962631 16.999887 -0.614348 0.000000 48.000000 14.593180 24.000000
24.370440 18.321732 -2.615911 0.000000 48.000000 14.358683 0.000000
24.878177 19.090142 -0.337633 0.000000 35.000000 14.281468 0.000000
22.550524 18.458615 -1.970965 0.000000 78.000000 15.095742 23.000000
20.264160 17.055209 -2.092474 0.000000 38.000000 14.861592 17.000000
21.632575 17.671869 -2.616425 0.000000 53.000000 14.946480 26.000000
19.908412 15.991868 -2.828525 0.000000 25.000000 14.253996 0.000000
22.597988 17.027418 -3.705543 0.000000 47.000000 14.230448 0.000000
20.863243 18.168950 0.928128 0.000000 67.000000 14.873647 6.000000
22.920022 18.970860 0.930897 0.000000 56.000000 14.706135 2.000000
23.172498 18.488248 -0.032071 0.000000 56.000000 14.403299 0.000000
24.982174 19.481186 -0.929407 0.000000 37.000000 14.718923 11.000000
21.032604 17.592371 -1.392988 0.000000 69.000000 14.842828 24.000000
22.054474 16.837120 -3.941292 0.000000 49.000000 14.348861 0.000000
21.555219 17.894205 -0.035471 0.000000 55.000000 14.567266 6.000000
23.328973 18.686290 -1.028294 0.000000 38.000000 14.744677 14.000000
22.986963 17.696350 -4.395941 0.000000 43.000000 14.813958 29.000000
22.371035 18.102325 -0.638270 0.000000 51.000000 14.546484 6.000000
20.985062 18.158391 1.918609 0.000000 62.000000 14.580179 4.000000
23.192997 17.903369 -4.465516 0.000000 49.000000 14.924497 29.000000
22.298479 17.903491 -1.609352 0.000000 63.000000 14.631279 23.000000
19.865768 17.869996 0.738626 0.000000 70.000000 15.077842 9.000000
22.993523 18.470283 -1.016118 0.000000 69.000000 14.694429 14.000000
19.921498 16.195822 -2.538235 0.000000 39.000000 14.358791 0.000000
24.382979 18.466489 -1.551524 0.000000 61.000000 14.229975 0.000000
21.576874 18.282203 -0.143266 0.000000 59.000000 14.923104 6.000000
23.348826 18.329978 -0.540077 0.000000 45.000000 14.309644 0.000000
23.256345 18.327315 -0.400430 0.000000 49.000000 14.313563 0.000000
23.677820 17.928393 -3.808151 0.000000 55.000000 14.587117 27.000000
22.585933 18.919284 0.903369 0.000000 84.000000 14.808584 2.000000
22.692525 17.784995 -3.086334 0.000000 66.000000 14.708181 29.000000
21.807511 16.875308 -4.978279 0.000000 68.000000 14.730308 1.000000
21.216749 17.496224 -0.615407 0.000000 56.000000 14.498140 12.000000
20.586148 17.910838 0.289545 0.000000 51.000000 14.914816 9.000000
22.866780 18.511649 -1.898085 0.000000 57.000000 14.991444 23.000000
22.659248 17.952741 -2.283103 0.000000 58.000000 14.680324 23.000000
22.272745 18.292134 1.037059 0.000000 43.000000 14.360461 0.000000
22.841618 18.614225 -1.109631 0.000000 75.000000 14.906581 14.000000
21.384011 18.133415 1.911646 0.000000 40.000000 14.391422 0.000000
22.055652 18.258945 1.251085 0.000000 49.000000 14.372819 0.000000
21.803267 18.556286 1.914764 0.000000 46.000000 14.583763 3.000000
20.216672 17.598982 -0.563041 0.000000 50.000000 14.998255 24.000000
22.574221 18.033457 -3.707117 0.000000 74.000000 15.121544 29.000000
23.018108 18.354474 -1.415165 0.000000 68.000000 14.676440 14.000000
19.639092 16.765347 -0.090539 0.000000 37.000000 14.401442 0.000000
22.529927 18.783288 0.891556 0.000000 48.000000 14.715968 2.000000
20.104932 15.978031 -3.440155 0.000000 44.000000 14.302599 0.000000
20.210825 16.912554 -1.812297 0.000000 64.000000 14.693402 17.000000
23.081194 18.892911 0.886172 0.000000 41.000000 14.580324 2.000000
19.620834 15.913280 -2.695734 0.000000 29.000000 14.275476 0.000000
23.346452 17.594712 -4.407871 0.000000 56.000000 14.575928 29.000000
21.261784 18.223534 0.666384 0.000000 75.000000 14.814582 6.000000
24.443668 18.757379 -3.352759 0.000000 74.000000 14.882274 21.000000
22.410885 18.215430 0.022126 0.000000 39.000000 14.473470 6.000000
20.717417 16.372634 -3.485054 0.000000 39.000000 14.399852 0.000000
20.096164 16.236889 -2.713128 0.000000 53.000000 14.362057 0.000000
20.657225 17.009110 -2.330780 0.000000 56.000000 14.711196 30.000000
20.329054 16.403818 -2.708467 0.000000 48.000000 14.408710 0.000000
20.417866 17.119110 -1.623382 0.000000 44.000000 14.742364 17.000000
25.573864 19.511087 -1.267210 0.000000 63.000000 14.574532 10.000000
22.268024 18.242714 -2.271709 0.000000 73.000000 15.096754 23.000000
22.435457 17.097615 -3.479132 0.000000 47.000000 14.307350 0.000000
21.332139 18.270055 2.157234 0.000000 47.000000 14.475236 3.000000
22.606043 16.741541 -5.894155 0.000000 49.000000 14.491112 1.000000
23.869893 17.951024 -3.166711 0.000000 62.000000 14.375051 0.000000
21.016586 16.861923 -4.730984 0.000000 65.000000 14.994590 1.000000
24.571035 18.513315 -1.777896 0.000000 45.000000 14.244723 0.000000
24.968237 19.017873 -2.493787 0.000000 58.000000 14.686856 20.000000
21.973994 18.375170 2.347364 0.000000 41.000000 14.251432 0.000000
21.851936 17.802460 -2.349710 0.000000 57.000000 14.905456 24.000000
21.926435 18.452806 2.208676 0.000000 42.000000 14.372077 0.000000
21.603608 18.188679 -0.540581 0.000000 72.000000 14.923308 12.000000
24.441964 19.355459 -0.207057 0.000000 51.000000 14.667312 11.000000
20.846276 17.591057 -0.702598 0.000000 36.000000 14.758147 24.000000
20.336425 16.725381 -4.124318 0.000000 39.000000 15.019818 1.000000
23.342448 17.967133 -3.762375 0.000000 58.000000 14.751945 29.000000
20.983102 17.522540 -2.826121 0.000000 26.000000 15.139396 30.000000
22.287118 18.380043 1.250834 0.000000 43.000000 14.381109 0.000000
23.832089 18.310251 -2.337593 0.000000 37.000000 14.510645 22.000000
20.346271 17.201379 -0.896239 0.000000 41.000000 14.673748 24.000000
22.402525 18.432468 -1.980270 0.000000 68.000000 15.137559 23.000000
22.419637 18.355346 0.974123 0.000000 43.000000 14.368535 0.000000
23.298432 18.545128 0.189157 0.000000 53.000000 14.347905 0.000000
23.419436 18.544487 -0.095469 0.000000 46.000000 14.363115 0.000000
20.087961 17.088351 0.061362 0.000000 46.000000 14.458885 24.000000
22.634819 18.912672 0.047448 0.000000 49.000000 14.983287 5.000000
23.645833 18.499177 -2.003390 0.000000 60.000000 14.676174 13.000000
23.916956 17.943746 -3.135322 0.000000 41.000000 14.341423 0.000000
19.954484 17.097581 -0.407468 0.000000 31.000000 14.633526 24.000000
20.050877 17.573963 -0.381497 0.000000 77.000000 15.003728 24.000000
21.663507 18.644798 1.728628 0.000000 63.000000 14.764028 3.000000
23.364586 18.361347 -0.840679 0.000000 55.000000 14.401089 0.000000
25.044358 19.766902 -0.882372 0.000000 74.000000 14.931717 11.000000
19.842590 17.285251 -0.187403 0.000000 66.000000 14.793365 24.000000
23.891901 18.647108 -2.717605 0.000000 75.000000 14.869566 21.000000
24.660434 19.450312 -1.170947 0.000000 58.000000 14.884571 11.000000
25.526503 19.376974 -1.822368 0.000000 58.000000 14.607599 10.000000
22.810674 18.326389 -1.168267 0.000000 66.000000 14.681460 14.000000
20.147942 17.317563 -0.711184 0.000000 71.000000 14.815748 24.000000
24.671736 19.137406 -0.809585 0.000000 51.000000 14.520959 11.000000
23.273550 17.227662 -4.601181 0.000000 44.000000 14.330836 0.000000
20.543319 16.961391 -1.683665 0.000000 30.000000 14.565467 17.000000
21.525365 18.011129 -0.350523 0.000000 36.000000 14.756270 12.000000
24.460744 18.940641 -2.449577 0.000000 70.000000 14.823240 20.000000
23.095776 17.102110 -4.827049 0.000000 55.000000 14.349105 0.000000
24.744992 18.953814 -2.904970 0.000000 49.000000 14.821713 20.000000
19.141336 16.501890 -2.018000 0.000000 65.000000 14.834034 8.000000
20.204654 16.345083 -2.507053 0.000000 38.000000 14.362511 0.000000
22.970241 16.933376 -5.080646 0.000000 45.000000 14.314021 0.000000
22.240316 17.542670 -3.058206 0.000000 38.000000 14.680468 29.000000
23.380033 17.869867 -3.968640 0.000000 69.000000 14.699394 29.000000
20.734609 18.095140 0.685935 0.000000 77.000000 14.920288 6.000000
22.856555 16.754216 -5.346900 0.000000 37.000000 14.267779 0.000000
21.105681 16.577274 -4.302083 0.000000 71.000000 14.606979 1.000000
20.536232 16.869328 -2.522461 0.000000 54.000000 14.684987 30.000000
21.916787 16.459680 -4.624780 0.000000 40.000000 14.237233 0.000000
22.352564 18.166729 -2.234232 0.000000 37.000000 14.985718 23.000000
22.665619 18.444060 -2.028606 0.000000 73.000000 15.047926 23.000000
20.571450 17.517876 1.096269 0.000000 44.000000 14.387446 0.000000
25.115831 19.357383 -0.653928 0.000000 75.000000 14.489347 11.000000
24.324135 18.635842 -2.387787 0.000000 45.000000 14.599607 20.000000
20.922519 17.637085 0.497863 0.000000 26.000000 14.484124 6.000000
21.424936 16.434535 -4.094333 0.000000 41.000000 14.298341 0.000000
22.333169 16.528759 -5.009802 0.000000 37.000000 14.212292 0.000000
20.229415 18.047665 0.379564 0.000000 55.000000 15.164137 9.000000
22.358713 16.709417 -4.906740 0.000000 53.000000 14.335429 0.000000
21.618386 16.626866 -3.964532 0.000000 39.000000 14.354485 0.000000
20.669440 17.741531 1.475175 0.000000 36.000000 14.452797 6.000000
24.420246 19.353101 -1.485092 0.000000 71.000000 14.974761 19.000000
22.599385 18.389528 -1.940013 0.000000 68.000000 15.007348 23.000000
21.856007 16.764216 -3.846980 0.000000 48.000000 14.346716 0.000000
22.735346 16.916304 -4.731263 0.000000 43.000000 14.316198 0.000000
23.985331 18.566648 -1.749973 0.000000 57.000000 14.532270 13.000000
22.929669 17.110434 -4.578978 0.000000 53.000000 14.368264 0.000000
20.030369 17.929009 0.400160 0.000000 42.000000 15.139508 9.000000
22.403095 18.357724 0.972952 0.000000 33.000000 14.377880 0.000000
21.855149 18.137169 -1.061670 0.000000 41.000000 14.894413 12.000000
20.496530 17.624182 -0.574889 0.000000 74.000000 14.904878 24.000000
24.220957 18.017623 -3.614677 0.000000 54.000000 14.390323 0.000000
21.537107 18.605039 1.781866 0.000000 65.000000 14.770107 3.000000
23.641790 17.818282 -2.650008 0.000000 44.000000 14.233782 0.000000
22.650095 18.902792 0.119287 0.000000 61.000000 14.951303 5.000000
22.500443 18.251300 -1.844088 0.000000 72.000000 14.905598 23.000000
22.910680 17.837442 -3.412058 0.000000 68.000000 14.738483 29.000000
25.533596 18.984919 -2.186337 0.000000 65.000000 14.346931 0.000000
25.239018 19.002118 -2.138822 0.000000 48.000000 14.475259 20.000000
23.159660 18.563936 -0.082630 0.000000 64.000000 14.486860 5.000000
24.740837 18.980071 -1.080954 0.000000 63.000000 14.417809 0.000000
20.128348 17.131722 -0.771855 0.000000 41.000000 14.675598 24.000000
20.541560 16.762383 -3.982537 0.000000 43.000000 14.932234 1.000000
21.294920 18.035042 1.634505 0.000000 55.000000 14.408070 0.000000
23.443695 18.905759 -1.726230 0.000000 69.000000 15.052353 13.000000
23.398056 18.579804 -2.236332 0.000000 56.000000 14.906166 22.000000
21.628069 18.002478 1.133141 0.000000 42.000000 14.356650 0.000000
23.275140 18.508921 -2.436803 0.000000 68.000000 14.943149 22.000000
23.782812 18.611395 -1.222845 0.000000 49.000000 14.533117 19.000000
21.055940 17.825315 -1.354708 0.000000 52.000000 15.027894 24.000000
22.030110 17.942124 0.629502 0.000000 43.000000 14.252336 0.000000
19.218087 16.710258 -1.863572 0.000000 66.000000 14.947727 8.000000
21.654128 17.373755 -3.303015 0.000000 51.000000 14.837755 15.000000
21.194692 18.218139 -0.738502 0.000000 47.000000 15.168349 12.000000
24.190979 18.806267 -2.138163 0.000000 81.000000 14.746385 20.000000
20.927280 17.078690 -2.052637 0.000000 48.000000 14.592662 16.000000
21.067204 16.949843 -4.668247 0.000000 69.000000 15.035429 1.000000
19.855955 16.868116 -0.543902 0.000000 63.000000 14.506336 7.000000
23.013940 17.881948 -3.618112 0.000000 41.000000 14.782245 29.000000
22.342733 16.787341 -4.791024 0.000000 24.000000 14.383201 0.000000
21.866829 18.135285 -0.721470 0.000000 50.000000 14.807883 12.000000
21.390176 17.780323 -1.071841 0.000000 59.000000 14.780841 24.000000
21.076514 18.000356 0.309538 0.000000 73.000000 14.781335 6.000000
21.694179 18.255782 1.452300 0.000000 39.000000 14.475463 3.000000
22.920308 17.564836 -3.984741 0.000000 46.000000 14.630356 29.000000
20.894506 17.175192 -1.702595 0.000000 68.000000 14.608725 16.000000
22.577067 18.313856 -2.798273 0.000000 66.000000 15.152225 25.000000
20.868886 18.183720 0.553241 0.000000 79.000000 14.972291 6.000000
22.150594 18.160224 -1.018306 0.000000 57.000000 14.779599 12.000000
